ply
format ascii 1.0
comment Created by CloudCompare v2.12 alpha
comment Created 2023-11-20T23:54:45
obj_info Generated by CloudCompare!
element vertex 952
property float x
property float y
property float z
property uchar red
property uchar green
property uchar blue
end_header
-604.179016 -431.052002 -26.915001 120 118 107 
-584.333984 -428.859009 -26.927999 124 126 115 
-604.432007 -388.821991 -26.819000 126 121 115 
-584.635986 -391.860992 -26.761000 133 130 120 
-547.939026 -429.072998 -26.937000 127 121 112 
-509.734009 -428.906006 -26.750000 134 126 119 
-547.710022 -391.891998 -26.830999 136 128 117 
-510.433990 -391.807007 -26.632999 130 122 115 
-604.630981 -353.401001 -26.712999 142 124 116 
-584.815002 -354.764008 -26.632000 132 126 116 
-604.695007 -317.958008 -26.545000 125 120 114 
-584.203979 -317.580994 -26.510000 131 129 120 
-547.439026 -354.696014 -26.587000 124 128 117 
-510.385986 -354.774994 -26.393000 150 139 132 
-547.737000 -317.683990 -26.368999 133 125 119 
-510.656006 -317.506012 -26.073000 125 118 113 
-473.506012 -429.014008 -26.452999 136 130 121 
-436.416992 -429.028992 -25.146000 129 121 105 
-473.304993 -391.933990 -26.191999 127 123 114 
-436.231995 -392.002014 -24.957001 120 109 100 
-399.161011 -428.876007 -24.021000 125 117 108 
-362.171997 -429.239990 -22.749001 132 125 114 
-399.324005 -391.808990 -23.850000 137 132 117 
-362.442993 -392.078003 -22.653999 150 147 134 
-473.334991 -354.735992 -26.000999 147 139 128 
-436.390015 -354.630005 -24.823000 133 128 120 
-473.434998 -317.631012 -25.642000 135 129 119 
-436.415985 -317.755005 -24.436001 152 144 129 
-398.915985 -354.774994 -23.645000 156 148 134 
-361.858002 -354.390991 -22.402000 127 118 106 
-398.783997 -317.696014 -23.285000 131 127 119 
-362.377991 -317.989014 -22.041000 207 192 158 
-604.812012 -281.901001 -26.388000 123 123 113 
-584.250977 -280.589996 -26.254999 124 119 110 
-605.356018 -243.037994 -26.371000 152 145 130 
-584.867981 -243.772995 -26.237000 132 118 114 
-547.409973 -280.540009 -26.114000 132 132 122 
-510.381012 -280.654999 -25.865999 126 119 112 
-547.713989 -243.332993 -26.009001 129 126 114 
-510.467010 -243.436005 -25.615000 120 118 110 
-605.578979 -205.716003 -26.267000 124 120 113 
-584.672974 -206.324997 -26.257999 126 118 111 
-605.755981 -168.824997 -26.153999 138 133 111 
-584.741028 -169.102005 -26.221001 140 134 123 
-547.703003 -206.298996 -25.868999 130 119 116 
-510.457001 -206.264999 -25.496000 132 126 120 
-547.585022 -169.201004 -25.775999 124 123 111 
-510.247009 -169.074997 -25.483000 129 120 109 
-473.428986 -280.384003 -25.177000 139 133 125 
-436.243011 -280.652008 -24.002001 138 130 124 
-473.183990 -243.453003 -24.563000 124 118 107 
-436.122986 -243.466995 -23.441999 140 130 129 
-399.247009 -280.453003 -22.756001 137 132 122 
-362.042999 -280.460999 -21.358999 105 93 95 
-399.122009 -243.395004 -22.285999 146 138 127 
-362.246002 -243.470993 -20.849001 125 120 113 
-473.266998 -206.171005 -24.570999 118 112 103 
-436.493988 -205.895004 -23.062000 121 113 107 
-473.440002 -169.229004 -24.266001 135 127 119 
-436.415009 -169.214996 -22.947001 127 123 116 
-399.022003 -206.296005 -21.917999 144 135 123 
-362.502991 -206.447006 -20.476999 116 112 101 
-399.192993 -169.294006 -21.591999 109 106 92 
-362.459991 -169.432999 -20.101000 108 102 91 
-324.990997 -429.252991 -21.297001 130 124 115 
-287.894989 -428.868011 -19.850000 113 110 100 
-324.927002 -392.096008 -21.049000 141 132 122 
-287.933990 -392.171997 -19.596001 99 86 81 
-251.382004 -428.881989 -18.212999 128 122 108 
-213.904999 -428.770996 -17.056999 166 154 143 
-250.878998 -391.825989 -17.870001 150 140 125 
-213.742004 -391.881989 -16.830999 160 148 143 
-325.559998 -354.562988 -20.933001 114 108 97 
-288.191010 -354.290985 -19.396999 119 117 109 
-325.204987 -317.855011 -20.656000 161 150 131 
-288.320007 -317.618988 -19.150000 126 121 114 
-249.628998 -354.971985 -17.823000 125 115 106 
-213.865005 -354.833008 -16.563999 121 110 100 
-250.630997 -318.075989 -17.518000 148 134 128 
-213.688004 -317.846008 -16.254999 136 134 121 
-176.529007 -429.057007 -15.697000 153 146 135 
-139.320999 -429.074005 -14.224000 174 157 154 
-176.951004 -391.605988 -15.473000 232 217 207 
-139.953995 -391.756989 -13.997000 174 156 142 
-102.448997 -429.098999 -12.717000 205 200 181 
-65.473000 -429.265991 -11.234000 177 162 148 
-103.122002 -391.566010 -12.509000 169 155 144 
-65.847000 -392.071991 -10.997000 166 156 143 
-177.042999 -354.751007 -15.169000 146 137 131 
-139.744003 -354.734009 -13.657000 189 178 162 
-176.927994 -317.352997 -14.685000 143 139 129 
-139.354996 -317.596985 -13.127000 138 130 122 
-102.987999 -355.118988 -12.245000 148 142 131 
-65.047997 -354.862000 -10.754000 155 144 135 
-102.691002 -317.894012 -11.659000 155 150 132 
-65.547997 -317.804993 -10.348000 149 138 129 
-325.122009 -280.790985 -19.931000 139 136 122 
-288.299011 -280.362000 -18.570999 84 86 71 
-324.966003 -243.584000 -19.372999 126 120 113 
-288.065002 -244.061996 -18.035000 113 102 93 
-250.888000 -280.684998 -16.938999 86 70 65 
-214.296005 -280.830994 -15.519000 123 120 110 
-250.832993 -243.412003 -16.356001 125 122 113 
-213.524002 -243.785995 -14.913000 107 106 84 
-325.575989 -206.863998 -18.975000 116 111 94 
-288.420990 -206.113998 -17.386000 120 114 103 
-325.493011 -169.473007 -18.381001 107 96 90 
-288.595001 -169.151001 -16.672001 105 95 86 
-251.472000 -206.604996 -15.664000 107 97 81 
-214.382004 -206.621002 -13.946000 103 100 83 
-251.190002 -169.214996 -14.813000 115 108 100 
-213.604004 -169.824997 -13.189000 113 107 89 
-177.651993 -280.571991 -13.954000 126 120 110 
-139.695007 -280.256989 -12.385000 140 132 124 
-176.932007 -243.639008 -13.324000 129 126 116 
-140.037003 -243.692993 -11.793000 138 129 116 
-102.710999 -280.933014 -10.976000 135 127 118 
-65.959000 -280.769989 -9.696000 152 145 136 
-102.632004 -243.621002 -10.390000 140 133 124 
-65.877998 -244.048004 -9.023000 147 143 129 
-177.134995 -206.360992 -12.441000 122 114 99 
-140.223999 -207.348999 -11.060000 161 153 136 
-176.856995 -169.699997 -11.607000 126 116 101 
-139.854004 -169.725998 -10.092000 122 114 101 
-102.709999 -206.779007 -9.521000 137 130 120 
-65.485001 -206.136993 -8.299000 146 139 128 
-102.268997 -169.723999 -8.672000 153 145 132 
-75.302002 -176.932999 -7.918000 143 134 126 
-605.969971 -132.701996 -25.995001 105 99 93 
-584.348022 -132.007996 -25.972000 131 125 119 
-606.244995 -92.922997 -25.681000 102 103 89 
-584.901978 -94.935997 -25.573999 105 103 97 
-547.648010 -132.139008 -25.594999 136 126 121 
-510.661011 -132.108994 -25.261000 107 105 95 
-547.653015 -94.998001 -25.281000 107 104 90 
-510.592987 -94.584999 -25.040001 118 113 92 
-606.439026 -55.974998 -25.392000 110 104 94 
-584.692017 -57.771999 -25.245001 117 104 101 
-606.729980 -20.782000 -25.066000 128 125 110 
-584.419983 -20.730000 -24.993000 99 102 95 
-547.755981 -57.862999 -25.115000 91 93 81 
-510.557007 -57.771000 -24.889999 106 107 86 
-547.778992 -20.617001 -24.917000 101 95 81 
-510.493988 -20.749001 -24.768000 97 97 83 
-473.520996 -132.046997 -24.141001 108 107 93 
-436.433990 -131.940994 -22.726000 102 105 94 
-473.489990 -95.092003 -23.962000 107 97 93 
-436.427002 -95.153999 -22.476999 93 93 87 
-399.338013 -131.970993 -21.256001 93 94 83 
-362.239990 -132.117004 -19.458000 83 78 72 
-399.713013 -94.936996 -20.870001 65 66 60 
-362.210999 -95.466003 -19.181000 115 107 101 
-473.511993 -57.584999 -23.618000 102 98 87 
-436.471985 -57.928001 -22.055000 85 79 79 
-473.372009 -20.636999 -23.709000 93 91 80 
-436.454010 -20.423000 -21.884001 104 97 89 
-399.294006 -57.805000 -20.301001 105 99 92 
-362.528015 -58.330002 -18.355000 141 129 127 
-399.154999 -20.413000 -19.792000 68 63 65 
-362.792999 -20.606001 -17.754999 68 65 65 
-606.976013 18.393999 -24.914000 108 105 92 
-584.976990 16.561001 -24.834000 123 116 109 
-607.187988 53.841999 -24.510000 108 109 104 
-585.008972 53.574001 -24.443001 114 110 102 
-547.685974 16.438999 -24.743000 100 95 84 
-510.513000 16.754000 -24.750000 130 121 103 
-547.585999 53.457001 -24.438999 106 103 92 
-510.471985 53.327000 -24.452000 114 114 95 
-607.400024 90.722000 -24.187000 106 103 100 
-584.502991 90.512001 -24.280001 113 114 106 
-607.598022 126.903999 -23.743000 118 113 104 
-584.916016 127.658997 -23.886999 117 113 109 
-547.685974 91.047997 -24.350000 125 118 110 
-510.342987 90.540001 -24.299999 120 113 106 
-547.585999 127.995003 -23.937000 118 108 107 
-510.596008 127.695999 -23.882000 124 115 109 
-473.429993 16.212999 -23.634001 86 81 77 
-436.638000 16.596001 -21.539000 83 80 81 
-473.549988 53.542000 -23.468000 101 93 81 
-436.295013 53.828999 -21.313000 91 88 81 
-399.411987 16.847000 -19.320000 73 71 69 
-362.602997 16.740999 -17.362000 53 56 50 
-399.334991 53.344002 -19.027000 106 103 92 
-362.453003 53.305000 -16.827000 69 73 66 
-473.449005 90.551003 -23.354000 106 105 95 
-436.532990 90.755997 -21.006001 94 99 92 
-473.393005 127.748001 -23.115000 137 130 125 
-436.480988 127.685997 -20.849001 104 97 93 
-399.385986 90.377998 -18.688000 89 85 85 
-362.559998 90.851997 -16.344999 78 80 74 
-399.817993 127.932999 -18.393000 91 87 83 
-362.700989 127.502998 -16.250000 88 87 81 
-325.203003 -132.289001 -17.554001 86 82 74 
-288.365997 -132.281998 -15.757000 97 95 83 
-324.894989 -94.841003 -17.055000 71 68 65 
-288.371002 -94.999001 -15.185000 63 60 54 
-250.979004 -132.380997 -13.996000 113 110 95 
-213.770004 -132.216003 -12.306000 112 104 96 
-251.494003 -94.708000 -13.251000 101 93 86 
-214.123001 -95.209000 -11.410000 108 104 90 
-325.509003 -58.022999 -16.268999 130 127 119 
-287.908997 -57.945999 -14.469000 87 80 69 
-325.144012 -21.409000 -15.678000 121 115 113 
-287.976013 -21.323999 -13.766000 55 56 54 
-251.873001 -58.438000 -12.539000 53 52 48 
-214.542999 -57.948002 -10.423000 87 84 78 
-251.227005 -21.232000 -11.758000 74 72 66 
-215.016006 -21.490999 -9.492000 75 73 62 
-177.089996 -132.585999 -10.669000 115 110 99 
-139.671005 -132.292007 -9.135000 121 119 103 
-177.330002 -95.481003 -9.846000 116 105 96 
-140.018997 -95.424004 -8.180000 116 110 100 
-105.561996 -134.507996 -7.915000 133 124 112 
-120.565002 -112.804001 -7.913000 127 126 115 
-177.287003 -58.444000 -8.592000 93 86 78 
-153.779007 -69.139000 -7.916000 115 113 106 
-185.315002 -25.374001 -7.914000 98 85 75 
-325.631012 16.308001 -15.263000 68 66 60 
-288.864990 16.795000 -12.851000 42 47 41 
-326.135986 53.351002 -14.478000 65 64 57 
-288.944000 53.074001 -11.911000 63 63 58 
-251.742004 15.713000 -10.806000 69 67 61 
-214.330002 16.149000 -8.330000 70 65 60 
-250.660004 53.532001 -10.119000 151 138 122 
-223.921005 36.476002 -8.393000 140 133 113 
-325.381012 90.577003 -13.819000 76 77 70 
-289.251007 90.591003 -12.022000 143 135 120 
-325.657013 128.453995 -14.420000 96 89 70 
-306.143005 115.563004 -12.779000 89 90 68 
-28.806999 -428.963989 -10.043000 159 147 140 
8.500000 -428.957001 -8.964000 147 141 130 
-28.386999 -391.759003 -9.806000 149 145 134 
8.890000 -391.346985 -8.848000 149 138 126 
45.650002 -429.773987 -8.140000 117 110 91 
45.914001 -391.170013 -7.974000 130 121 107 
-28.341999 -354.973999 -9.643000 151 148 135 
9.128000 -355.641998 -8.710000 140 132 121 
-28.285000 -317.575012 -9.156000 142 136 124 
8.193000 -318.007996 -8.159000 130 124 115 
42.991001 -355.403015 -7.924000 133 131 120 
30.728001 -329.873993 -7.915000 131 126 111 
175.212997 -303.417999 -16.690001 54 50 49 
180.828995 -312.411011 -16.849001 57 54 53 
214.695007 -314.484009 -16.389999 46 45 44 
-28.594000 -280.803009 -8.469000 140 135 126 
-0.312000 -290.820007 -7.917000 138 134 125 
-32.023998 -245.332001 -7.924000 142 137 128 
-44.680000 -220.832001 -7.915000 143 137 124 
161.557007 -277.654999 -14.967000 59 53 51 
171.679993 -239.132996 -13.507000 48 44 44 
195.632996 -282.699005 -15.189000 48 45 45 
213.537003 -276.420990 -15.285000 46 43 43 
195.307007 -243.897003 -13.944000 42 38 39 
223.714005 -247.067993 -16.195999 41 39 40 
158.203995 -207.274994 -11.752000 57 50 49 
172.080002 -163.188995 -19.816999 37 36 37 
193.477997 -213.973007 -13.899000 39 37 38 
85.435997 -147.238007 -7.927000 92 85 79 
268.622986 -102.699997 -22.025999 26 24 24 
288.406006 -85.844002 -20.777000 26 23 23 
288.824005 -75.403999 -21.625999 24 24 24 
-607.851013 165.365005 -23.545000 112 115 108 
-584.668030 164.856995 -23.716000 133 128 119 
-608.093018 202.371002 -23.313000 114 111 115 
-584.637024 202.100998 -23.493999 123 118 115 
-547.492981 164.710999 -23.698999 139 132 122 
-510.553009 164.703995 -23.584999 124 121 114 
-547.495972 202.080002 -23.396000 124 124 118 
-510.519012 201.953003 -23.308001 151 142 138 
-608.301025 239.748001 -23.061001 123 122 117 
-584.536987 239.212997 -23.195000 134 131 127 
-608.536987 277.562012 -22.493999 120 118 114 
-584.856018 276.381012 -22.723000 120 117 114 
-547.601990 239.367996 -23.167000 132 128 113 
-510.369995 239.341995 -23.127001 141 139 130 
-547.515015 276.411987 -22.801001 122 116 112 
-510.403015 276.320007 -22.896000 128 118 117 
-473.627014 165.054001 -22.790001 124 120 115 
-436.587006 165.022995 -20.618999 110 102 101 
-473.494995 201.929001 -22.552999 127 125 117 
-436.635010 201.714996 -20.400000 110 109 107 
-399.458008 164.860992 -18.215000 101 98 99 
-362.531006 164.759003 -16.226000 80 75 76 
-399.041992 202.216995 -18.153000 70 70 73 
-362.674011 202.162994 -16.264000 69 66 70 
-473.480011 238.983002 -22.271000 122 115 114 
-436.601990 238.960007 -20.257000 126 125 126 
-473.454010 276.519989 -22.195999 98 103 95 
-436.609009 276.398987 -20.296000 48 48 55 
-399.891998 239.546005 -18.243000 51 53 57 
-362.444000 239.468002 -16.233000 49 51 57 
-399.657990 276.261993 -18.205999 45 44 51 
-362.390991 276.002014 -16.136999 43 43 45 
-608.458008 313.678009 -22.399000 121 121 115 
-584.494995 313.433014 -22.573000 128 123 122 
-609.013000 352.018005 -22.315001 118 113 114 
-584.489990 350.549988 -22.427999 125 118 119 
-547.262024 313.329010 -22.679001 126 119 114 
-510.338989 313.355988 -22.760000 99 95 91 
-547.617004 350.007996 -22.478001 125 116 116 
-510.341003 350.579987 -22.566999 98 101 99 
-609.168030 387.720001 -21.584999 110 105 102 
-584.500000 387.570007 -21.839001 121 118 118 
-609.432983 424.457001 -21.246000 113 114 108 
-584.827026 424.955994 -21.282000 105 106 104 
-547.676025 387.609009 -22.082001 92 93 91 
-510.556000 387.492004 -22.226999 106 101 104 
-547.648010 424.571991 -21.660999 90 87 95 
-510.346985 424.855988 -21.913000 80 79 84 
-473.880005 313.566010 -22.091000 51 54 56 
-436.299011 313.792999 -20.292000 36 37 40 
-473.701996 350.598999 -21.907000 54 52 59 
-436.644989 350.325012 -20.184000 44 43 47 
-399.343994 312.862000 -18.261000 111 109 107 
-362.769989 312.949005 -15.952000 47 47 52 
-399.601990 350.338013 -18.209999 114 112 116 
-362.238007 350.712006 -16.361000 33 31 38 
-473.563995 387.983002 -21.816000 86 85 87 
-436.391998 387.990997 -20.030001 47 45 53 
-473.587006 424.523987 -21.663000 62 70 75 
-436.714996 424.790985 -20.099001 72 69 79 
-399.859009 387.406006 -18.232000 59 61 67 
-362.694000 388.069000 -16.563999 40 37 46 
-399.239014 424.635986 -18.395000 46 54 58 
-361.967987 424.360992 -16.851999 49 48 55 
-329.920990 164.520004 -14.959000 106 103 91 
-339.237000 198.820999 -15.261000 115 112 104 
-340.308014 236.182007 -9.229000 29 22 18 
-338.709991 283.980011 -14.625000 81 81 76 
-325.421997 315.575989 -13.299000 31 21 22 
-289.053009 317.660004 -11.431000 74 78 75 
-325.239014 350.765015 -13.768000 38 37 39 
-288.656006 350.825989 -11.851000 37 35 38 
-251.283005 318.458008 -9.439000 54 42 32 
-211.472000 320.246002 -7.990000 43 28 19 
-251.988007 350.895996 -9.959000 44 43 42 
-214.391998 350.320007 -8.644000 64 59 62 
-325.507996 387.385986 -14.295000 63 65 58 
-288.834991 387.701996 -12.182000 38 36 37 
-325.493011 424.346985 -14.833000 45 38 41 
-287.938995 424.433014 -12.443000 40 37 36 
-251.925003 387.596008 -10.182000 41 37 43 
-213.774002 387.638000 -8.586000 78 76 79 
-251.397003 424.463013 -10.387000 54 50 52 
-214.309998 424.597992 -8.608000 79 68 63 
-194.348007 353.691010 -7.913000 65 57 53 
-193.942001 379.634003 -7.913000 58 49 50 
-194.115997 417.226013 -7.913000 61 45 50 
-609.581970 461.705994 -20.777000 102 104 112 
-584.520996 461.863007 -21.141001 104 106 112 
-609.898010 498.953003 -20.695999 99 109 109 
-584.703979 498.574005 -21.014000 97 94 102 
-547.374023 461.694000 -21.480000 95 89 98 
-510.502014 461.700989 -21.760000 89 91 99 
-547.640991 499.138000 -21.431999 111 107 111 
-510.373993 498.779999 -21.805000 110 100 113 
-610.072021 535.726990 -20.399000 111 113 114 
-584.609009 536.091980 -20.816999 98 99 102 
-610.382019 573.664978 -20.250000 109 109 117 
-584.872009 572.966003 -20.778000 132 135 137 
-547.309998 536.200012 -21.414000 111 108 115 
-510.661011 536.072998 -21.850000 103 105 112 
-547.601013 573.229980 -21.306000 104 105 110 
-510.477997 573.369995 -21.841000 111 114 117 
-473.566986 461.455994 -21.434999 116 115 120 
-436.742004 461.582001 -20.021999 88 89 98 
-473.441010 499.079987 -21.504999 101 101 107 
-436.337006 498.946014 -20.191000 108 115 117 
-398.937988 461.773010 -18.527000 52 52 58 
-362.692993 461.347992 -17.004000 75 75 82 
-399.105011 499.417999 -18.790001 82 86 89 
-362.703003 498.791992 -17.405001 78 81 85 
-473.450989 536.109985 -21.712999 107 101 108 
-436.932007 536.091003 -20.384001 95 93 100 
-473.272003 573.221008 -21.872000 113 113 118 
-436.328003 573.010986 -20.427999 116 114 119 
-399.148987 536.382996 -18.832001 113 111 118 
-362.317993 535.953979 -17.721001 101 97 105 
-399.460999 573.140991 -18.848000 114 109 115 
-362.502014 572.833008 -17.679001 103 107 112 
-610.510010 610.625000 -20.448000 102 109 113 
-584.934998 610.421021 -20.837999 115 118 124 
-610.817993 647.078979 -20.951000 113 112 125 
-584.950012 647.512024 -21.305000 116 118 121 
-547.432983 610.663025 -21.285999 114 112 116 
-510.364990 610.234009 -21.809000 114 113 118 
-547.431030 647.369019 -21.421000 126 125 130 
-510.412994 647.174011 -21.948000 108 113 112 
-610.848999 685.432007 -20.864000 104 111 119 
-584.888977 684.627014 -21.395000 117 122 123 
-610.737000 720.953003 -20.957001 120 121 129 
-584.216980 721.844971 -21.795000 116 116 120 
-547.809998 684.697021 -21.659000 135 135 137 
-510.295013 684.857971 -22.143000 128 129 133 
-547.226013 721.651001 -21.950001 124 119 121 
-510.388000 721.830994 -22.422001 138 134 134 
-473.281006 610.234009 -21.948999 128 128 131 
-436.553009 610.484985 -20.591000 129 124 133 
-473.540985 647.495972 -22.226000 131 129 138 
-436.813995 646.999023 -20.839001 104 109 115 
-399.358002 610.215027 -19.055000 128 127 129 
-362.029999 610.038025 -17.752001 77 84 97 
-399.282990 647.385986 -19.212000 168 154 154 
-362.231995 647.515991 -17.745001 96 96 102 
-473.385010 684.606995 -22.309999 120 119 122 
-436.207001 684.739990 -20.850000 134 133 141 
-473.653015 721.067993 -22.487000 132 130 135 
-436.425995 721.866028 -21.014000 142 144 145 
-399.274994 684.185974 -19.355000 111 112 122 
-362.472992 684.273987 -17.695999 88 96 106 
-399.532990 721.914001 -19.621000 132 132 132 
-362.333008 721.906982 -17.921000 108 110 116 
-325.605011 462.069000 -15.017000 53 54 57 
-288.803986 462.065002 -12.969000 28 29 27 
-325.394012 499.098999 -15.367000 73 77 85 
-288.507996 499.125000 -13.310000 23 23 27 
-251.399002 461.933990 -10.786000 24 22 22 
-213.940994 461.850006 -9.027000 22 21 24 
-251.580002 499.342010 -11.199000 24 25 26 
-214.345001 498.960999 -9.287000 35 39 41 
-325.304993 536.684998 -15.566000 83 93 105 
-288.709991 536.765991 -13.557000 71 64 73 
-325.248993 573.299988 -15.739000 85 104 116 
-288.859985 573.427979 -13.631000 66 70 79 
-251.410995 536.085022 -11.384000 86 87 95 
-214.582001 535.968994 -9.271000 92 89 90 
-251.824005 573.158020 -11.387000 94 96 90 
-214.867996 573.296021 -9.081000 104 109 115 
-191.188004 467.304993 -7.918000 21 18 20 
-191.179001 497.174988 -7.915000 34 35 37 
-193.244995 536.064026 -7.916000 83 78 90 
-194.546997 558.585999 -7.924000 127 121 125 
-325.053986 610.648010 -15.994000 86 82 99 
-288.739014 610.331970 -13.832000 77 89 98 
-325.889008 647.616028 -16.158001 46 48 68 
-288.222992 647.994995 -13.782000 154 103 100 
-251.389008 610.034973 -11.382000 102 113 122 
-214.085999 611.138977 -8.724000 88 84 96 
-252.063995 647.125977 -11.335000 75 83 78 
-214.742996 647.216980 -8.878000 116 116 122 
-325.360992 684.767029 -15.980000 127 126 123 
-288.444000 684.317017 -13.684000 64 73 87 
-325.157013 721.583984 -15.882000 116 110 122 
-289.252014 721.418030 -13.664000 85 80 89 
-251.281998 684.185974 -11.221000 71 78 84 
-214.791000 684.265991 -8.772000 100 96 107 
-251.304993 722.065002 -11.165000 95 92 105 
-214.268997 721.981995 -8.755000 108 110 117 
190.707993 391.747009 -8.588000 15 15 14 
225.166000 379.587006 -19.035999 18 16 16 
322.167999 224.524994 -8.098000 15 12 12 
322.675995 285.494995 -8.006000 15 13 11 
327.528015 292.571991 -7.914000 14 11 12 
274.243988 321.276001 -10.420000 14 11 12 
318.450989 312.195007 -9.866000 22 17 18 
257.829987 340.661011 -20.406000 14 11 12 
325.545013 310.941010 -9.576000 15 12 14 
342.104004 400.579010 -24.650999 14 15 18 
194.003998 605.643005 -13.024000 23 22 23 
170.707001 698.083984 -12.343000 30 30 33 
375.957001 724.843994 -37.445000 8 9 8 
-59.063000 -197.619995 -7.909000 139 132 123 
-89.651001 -157.636002 -7.905000 133 127 119 
-64.218002 -169.337006 -7.435000 169 160 146 
-195.195999 -4.593000 -7.903000 86 82 76 
-135.287003 -91.893997 -7.910000 112 115 104 
-101.144997 -131.932007 -7.663000 130 117 113 
-64.723000 -131.938004 -6.448000 135 134 122 
-101.814003 -94.463997 -6.649000 134 126 114 
-64.291000 -94.203003 -5.475000 135 124 116 
-167.292999 -51.676998 -7.911000 108 101 92 
-138.998993 -57.220001 -6.860000 123 123 107 
-175.393997 -20.278999 -7.247000 99 92 80 
-138.481003 -20.238001 -5.450000 91 95 82 
-101.647003 -56.778000 -5.287000 128 120 111 
-64.474998 -57.068001 -4.271000 143 135 125 
-101.419998 -19.910000 -3.428000 146 135 117 
-64.750999 -19.101999 -2.591000 116 111 100 
-269.223999 72.065002 -5.595000 128 121 109 
-207.311996 29.402000 -2.149000 152 137 117 
-246.714996 56.333000 -1.216000 121 79 53 
-210.324997 53.834999 5.042000 127 75 39 
-282.580994 93.175003 -2.493000 124 81 49 
-315.587006 135.753998 -7.024000 129 103 81 
-287.936005 128.059006 -0.397000 112 64 35 
-250.748001 91.638000 2.145000 131 92 52 
-212.791000 91.457001 4.767000 106 66 50 
-250.037003 127.583000 2.643000 68 43 27 
-214.070007 125.403000 10.755000 16 21 15 
-176.337997 23.591999 3.960000 119 77 47 
-142.410995 15.937000 5.974000 90 63 45 
-176.304993 53.542000 7.613000 159 106 56 
-139.492996 53.264000 11.557000 109 77 46 
-102.308998 18.337000 5.903000 200 142 118 
-64.606003 16.202000 3.604000 233 228 219 
-102.077003 53.679001 10.410000 186 137 110 
-64.986000 53.668999 3.728000 245 244 243 
-176.128998 90.487999 8.020000 144 99 71 
-139.072006 90.865997 10.832000 141 87 57 
-176.417999 129.057999 10.660000 23 22 15 
-138.979004 128.533005 9.875000 132 65 33 
-102.424004 90.821999 9.216000 181 143 110 
-65.089996 90.955002 3.923000 216 198 188 
-102.348000 127.596001 10.101000 192 153 142 
-65.015999 127.689003 4.644000 175 168 160 
53.757999 -431.494995 -7.901000 132 122 114 
84.162003 -428.686005 -7.363000 128 128 123 
46.307999 -391.756989 -7.907000 120 113 102 
83.577003 -391.368011 -7.209000 113 107 95 
15.846000 -316.760986 -7.904000 161 149 142 
46.175999 -355.076996 -7.791000 132 129 117 
82.925003 -354.036987 -6.986000 140 132 117 
46.800999 -317.106995 -7.189000 129 122 111 
84.222000 -317.027008 -6.474000 128 121 110 
120.620003 -428.156006 -6.957000 106 100 85 
158.130997 -428.966003 -6.460000 68 60 63 
120.874001 -391.963989 -6.695000 108 95 89 
158.503006 -391.656006 -6.119000 95 87 85 
194.466995 -429.083008 -6.224000 142 141 132 
232.371994 -428.338989 -5.873000 141 136 124 
195.291000 -391.356995 -5.691000 137 132 116 
232.399994 -391.213989 -5.319000 93 95 84 
120.537003 -353.815002 -6.374000 112 107 98 
157.587997 -355.048004 -5.827000 96 85 73 
121.073997 -317.710999 -5.830000 93 87 80 
158.156998 -317.963989 -5.266000 95 90 78 
194.584000 -354.558014 -5.218000 69 73 62 
232.404007 -354.317993 -4.804000 119 109 98 
194.600006 -316.920990 -4.781000 75 83 75 
232.143005 -316.619995 -4.329000 87 85 72 
-11.781000 -275.945007 -7.898000 137 131 121 
9.506000 -280.049011 -7.417000 133 127 123 
-27.521000 -243.371002 -7.700000 143 137 129 
9.274000 -243.307007 -6.686000 137 133 128 
47.002998 -280.463989 -6.476000 134 135 117 
83.652000 -279.747009 -5.606000 117 110 99 
46.570000 -242.964996 -5.624000 115 116 105 
83.982002 -242.798004 -4.664000 118 112 100 
-27.587000 -206.169006 -7.073000 152 145 135 
10.315000 -204.324005 -5.808000 211 181 159 
-27.729000 -168.472000 -6.438000 143 137 131 
9.634000 -168.354996 -5.579000 163 153 146 
46.780998 -206.268997 -5.042000 152 145 133 
83.575996 -206.188995 -4.228000 123 115 107 
46.807999 -168.488007 -4.737000 144 134 116 
83.575996 -168.725998 -3.959000 164 153 141 
120.695999 -280.457001 -4.925000 102 99 85 
157.632004 -280.204987 -4.450000 110 101 91 
120.613998 -243.020996 -4.064000 116 113 98 
158.067993 -243.197998 -3.626000 132 125 116 
194.207993 -279.980988 -3.990000 117 108 98 
231.951004 -280.186005 -3.611000 115 101 89 
195.270996 -243.289993 -3.180000 101 92 95 
232.427994 -243.513000 -2.845000 144 134 125 
120.568001 -206.179993 -3.603000 116 107 99 
158.123993 -206.160004 -3.014000 112 106 93 
121.359001 -168.761993 -3.352000 127 121 104 
158.089996 -169.334000 -2.747000 163 152 129 
195.375000 -205.893997 -2.625000 99 95 79 
231.917999 -205.936005 -2.347000 118 107 91 
194.813004 -168.649002 -2.282000 99 99 84 
232.054993 -169.126007 -1.927000 116 109 96 
269.065002 -428.487000 -5.634000 160 156 145 
305.802002 -428.950012 -5.547000 157 147 136 
269.415985 -392.049988 -5.095000 143 124 125 
305.740997 -391.847992 -4.851000 153 141 135 
342.679993 -428.536011 -5.441000 142 134 123 
380.015991 -428.427002 -5.456000 144 135 125 
343.428986 -391.973999 -4.717000 144 137 127 
380.632996 -391.893005 -4.679000 135 128 119 
269.549011 -354.531006 -4.417000 112 109 101 
306.389008 -354.441010 -4.137000 162 153 138 
268.852997 -317.585999 -4.041000 109 103 86 
306.377014 -316.888000 -3.695000 120 113 106 
342.871002 -354.444000 -3.981000 141 133 119 
380.166992 -355.041992 -3.917000 115 97 95 
343.204010 -317.588989 -3.425000 130 124 117 
379.886993 -317.276001 -3.408000 103 102 90 
417.888000 -428.380005 -5.532000 126 125 115 
455.015015 -429.007996 -5.702000 126 121 113 
416.894989 -391.256989 -4.732000 123 116 105 
454.023987 -391.257996 -4.923000 101 89 82 
491.997009 -428.957001 -5.894000 128 120 114 
518.306030 -428.854004 -6.129000 120 110 106 
491.601013 -391.466003 -5.173000 112 106 99 
518.083008 -391.311005 -5.315000 109 103 99 
417.403015 -354.979004 -4.020000 132 127 118 
453.721008 -354.220001 -4.227000 108 96 91 
418.091003 -317.044006 -3.422000 99 96 93 
454.360992 -317.381012 -3.569000 92 83 78 
491.661987 -354.335999 -4.486000 91 83 79 
517.857971 -355.040985 -4.697000 111 95 94 
492.273010 -317.161987 -3.772000 91 86 86 
517.617981 -317.938995 -4.085000 76 79 75 
268.821991 -279.959991 -3.304000 117 109 92 
306.052002 -280.158997 -2.970000 127 109 101 
269.614990 -243.123993 -2.581000 113 100 83 
306.364990 -243.054001 -2.329000 118 111 102 
343.239014 -280.330994 -2.750000 122 114 104 
380.135986 -280.269012 -2.756000 120 112 108 
343.391998 -243.057999 -2.154000 117 110 102 
380.615997 -243.429993 -2.139000 113 106 97 
268.959991 -206.169006 -2.086000 122 105 92 
306.347992 -206.483002 -1.905000 113 106 94 
269.248993 -168.792999 -1.669000 166 150 132 
306.082001 -169.212006 -1.443000 112 103 91 
342.949005 -206.117996 -1.841000 115 105 93 
380.001007 -206.445007 -1.848000 108 103 95 
337.164001 -168.212006 15.971000 93 73 57 
380.311005 -169.095001 -1.471000 115 98 101 
417.372986 -280.237000 -2.813000 107 100 93 
454.510986 -280.182007 -2.932000 86 87 75 
417.390015 -242.888000 -2.183000 128 122 118 
454.173004 -243.072998 -2.301000 90 83 75 
492.032990 -279.989014 -3.167000 134 128 117 
517.356018 -278.691010 -3.294000 136 128 121 
491.786011 -243.492004 -2.464000 93 89 85 
517.169983 -243.033997 -2.609000 62 61 51 
417.404999 -206.386993 -1.815000 103 98 86 
454.587006 -206.139008 -1.860000 93 91 88 
417.369995 -168.871994 -1.337000 108 100 90 
454.408997 -168.561005 -1.291000 80 76 63 
490.920013 -206.718994 -1.962000 95 88 85 
516.940979 -206.233994 -2.126000 120 114 110 
491.536011 -168.774994 -1.259000 87 88 84 
516.718018 -169.199005 -1.441000 106 102 93 
-27.679001 -132.779999 -5.432000 146 137 126 
9.837000 -131.720001 -4.911000 128 123 112 
-27.604000 -94.654999 -4.527000 128 121 112 
9.002000 -94.279999 -4.150000 126 120 108 
46.764999 -132.378006 -4.280000 125 117 107 
83.714996 -131.179993 -3.608000 107 103 92 
46.529999 -94.057999 -3.392000 121 108 98 
82.987000 -94.442001 -2.849000 112 95 89 
-27.556000 -57.637001 -3.425000 152 143 133 
9.672000 -57.902000 -3.245000 136 129 122 
-27.167999 -19.474001 -1.728000 99 93 82 
9.532000 -20.091999 -2.080000 117 114 103 
46.831001 -57.404999 -2.533000 107 106 93 
83.648003 -58.129002 -2.029000 108 105 94 
46.501999 -20.695000 -1.529000 119 113 101 
83.466003 -19.921000 -0.837000 113 110 99 
120.733002 -131.455002 -3.016000 128 126 117 
157.656998 -132.276993 -2.458000 110 104 88 
120.902000 -95.023003 -2.171000 111 97 91 
157.632004 -94.822998 -1.629000 115 107 88 
195.011002 -132.425003 -1.970000 115 106 95 
231.817993 -131.610001 -1.587000 118 116 105 
194.479996 -95.120003 -1.268000 105 102 85 
231.854996 -94.344002 -1.076000 105 104 92 
120.703003 -57.180000 -1.109000 121 115 102 
157.673996 -56.894001 -0.368000 112 105 88 
121.321999 -20.304001 0.272000 124 117 103 
158.134003 -21.256001 1.277000 114 113 92 
194.589996 -56.841999 0.076000 106 97 87 
231.925995 -57.195999 0.256000 104 103 90 
194.690002 -21.421000 1.982000 114 113 102 
231.955002 -20.591999 2.059000 139 128 111 
-27.937000 17.816000 7.576000 169 116 89 
15.847000 15.713000 7.113000 30 18 19 
-28.334000 52.817001 8.550000 122 65 52 
9.676000 53.884998 8.685000 25 19 22 
44.235001 17.941999 7.466000 47 29 23 
83.225998 0.529000 10.709000 222 216 184 
50.275002 54.776001 8.539000 11 10 10 
97.452003 61.152000 4.040000 37 25 19 
-27.955000 89.815002 8.748000 123 81 51 
8.492000 90.448997 8.774000 32 33 30 
-28.443001 127.667000 9.405000 113 69 44 
1.315000 127.879997 10.757000 134 130 120 
50.716000 89.306000 8.670000 7 9 8 
72.028999 92.158997 4.221000 40 37 39 
46.041000 127.509003 9.991000 18 19 17 
90.821999 137.082993 12.599000 8 11 8 
120.889000 0.595000 10.439000 130 128 110 
165.656006 11.437000 10.598000 65 61 52 
119.613998 53.304001 10.893000 48 32 23 
155.641006 52.869999 11.381000 27 17 9 
195.063995 12.499000 10.657000 188 187 164 
231.994995 13.163000 11.061000 199 201 172 
193.539001 51.962002 5.367000 33 23 17 
214.412994 50.888000 4.872000 47 36 25 
120.597000 90.135002 9.251000 25 19 16 
156.852997 90.500999 9.696000 20 15 14 
114.389999 121.476997 8.651000 18 16 14 
162.365997 122.015999 9.268000 45 23 20 
195.067001 77.517998 5.447000 40 29 21 
178.386002 122.967003 7.863000 18 16 15 
223.399994 110.394997 2.080000 21 19 16 
268.747009 -132.115997 -1.296000 113 111 96 
306.015015 -131.764008 -1.081000 127 121 99 
269.022003 -94.842003 -0.872000 105 99 84 
306.058990 -94.206001 -0.576000 121 112 95 
343.251007 -131.664001 -1.112000 121 112 102 
380.265015 -132.022995 -1.191000 113 108 91 
340.108002 -86.035004 8.930000 14 22 16 
380.257996 -94.567001 -0.475000 89 86 79 
269.246002 -57.680000 0.396000 101 98 81 
305.884003 -57.450001 0.598000 86 77 65 
269.523987 -20.740000 2.110000 141 136 121 
305.885010 -19.888000 1.961000 172 164 141 
343.328003 -57.688000 0.344000 80 75 63 
380.065002 -57.651001 0.404000 82 82 70 
343.394012 -19.802999 1.436000 139 137 121 
380.460999 -20.658001 1.484000 97 91 79 
417.087006 -131.990005 -0.965000 123 117 104 
454.519012 -131.820999 -0.752000 106 95 87 
417.470001 -94.414001 -0.422000 94 96 76 
454.815002 -94.555000 -0.248000 98 86 78 
491.539001 -131.705994 -0.660000 120 110 94 
516.492004 -132.134003 -0.752000 116 106 101 
491.859985 -94.365997 -0.069000 92 88 79 
516.250000 -93.855003 0.108000 119 111 107 
417.898987 -57.237999 0.421000 92 88 80 
454.523987 -57.539001 0.608000 97 86 82 
417.433990 -19.948000 1.527000 152 149 132 
454.362000 -20.516001 1.627000 97 92 80 
491.885010 -57.713001 0.677000 92 91 81 
516.015015 -56.705002 0.905000 92 90 81 
491.329987 -20.909000 1.498000 105 104 90 
515.802979 -20.732000 1.779000 83 76 64 
268.946014 12.279000 10.498000 145 145 126 
305.959015 0.336000 10.493000 213 205 173 
344.898987 31.823000 12.714000 54 52 38 
379.989990 1.484000 10.907000 158 156 138 
345.184998 48.589001 12.630000 71 59 45 
266.811005 79.683998 -6.048000 45 26 23 
415.395996 1.417000 10.746000 134 132 113 
454.632996 0.313000 10.910000 197 195 164 
491.821991 0.223000 10.970000 190 191 163 
515.622986 0.166000 10.987000 154 155 132 
-320.494995 163.643997 -4.623000 157 128 117 
-286.316986 165.694000 0.846000 87 51 40 
-323.695007 202.477997 -2.732000 150 116 102 
-285.179993 202.201996 2.104000 94 42 40 
-248.764999 164.378006 5.121000 104 66 50 
-209.695007 172.856003 7.453000 22 21 21 
-250.647995 200.292999 4.704000 105 46 42 
-212.970993 201.832993 6.899000 186 155 141 
-321.356995 239.778000 -1.259000 90 63 42 
-286.673004 239.061996 3.832000 124 98 86 
-323.014008 275.341003 -2.122000 93 48 26 
-287.127991 275.028015 1.410000 82 55 50 
-250.406006 238.927994 4.874000 61 23 18 
-213.822006 239.414001 10.848000 52 24 18 
-250.522003 275.278015 3.416000 120 89 73 
-213.199005 276.062988 9.097000 146 104 110 
-176.341995 165.337006 10.674000 15 14 11 
-139.731003 165.725998 9.321000 176 92 41 
-176.358002 201.378998 8.208000 144 98 70 
-139.244995 201.940994 9.804000 105 73 48 
-102.213997 163.936996 9.040000 195 162 155 
-64.859001 164.802002 3.895000 184 168 159 
-102.088997 202.516006 9.137000 146 108 59 
-64.686996 202.231995 3.467000 196 182 175 
-176.343994 239.085007 10.560000 137 94 68 
-139.244003 238.796997 9.191000 170 133 122 
-176.300003 275.231995 8.993000 127 86 61 
-139.093002 276.033997 9.434000 149 107 71 
-101.464996 239.733994 9.430000 143 122 121 
-65.039001 239.406006 3.530000 197 191 181 
-101.707001 276.377991 8.202000 95 59 45 
-65.061996 276.291992 3.953000 184 168 152 
-317.431000 304.356995 -4.816000 81 36 19 
-282.985992 310.040009 -1.217000 98 43 30 
-250.718002 308.324005 -0.009000 120 63 44 
-214.003006 306.578003 0.606000 59 38 45 
-208.910995 351.518005 -7.804000 63 55 57 
-301.071014 400.725006 10.810000 151 35 40 
-315.380005 442.074005 11.871000 12 16 22 
-288.178009 438.675995 12.539000 9 10 8 
-210.434006 389.627014 -7.898000 92 80 63 
-252.106003 440.519989 12.512000 14 13 14 
-214.302994 443.075012 21.507999 17 18 19 
-176.166000 309.627991 1.466000 105 42 44 
-138.755005 309.544006 2.884000 127 75 50 
-176.544998 349.390991 -6.734000 76 63 63 
-136.841995 349.434998 -4.670000 183 122 109 
-101.742996 309.550995 5.598000 139 96 64 
-65.037003 313.350006 4.465000 183 172 166 
-101.976997 350.696014 2.799000 137 128 123 
-65.009003 350.385010 3.950000 179 166 158 
-175.533005 390.402008 -6.223000 135 93 64 
-136.697998 388.308014 -4.282000 58 56 57 
-176.296005 424.600006 -6.710000 71 42 44 
-138.619995 422.480011 -4.273000 101 78 64 
-101.357002 387.795990 2.389000 142 135 128 
-64.856003 387.648987 3.500000 186 173 166 
-102.066002 424.519012 2.195000 139 133 126 
-64.920998 424.925995 3.355000 187 172 166 
-318.717010 460.826996 9.998000 32 33 34 
-287.490997 459.363007 3.763000 9 11 11 
-319.856995 498.339996 10.428000 45 47 52 
-286.247009 497.320007 12.604000 4 3 7 
-248.266006 453.665009 5.309000 1 3 2 
-215.087997 454.882996 5.773000 14 13 14 
-252.962006 498.420990 5.869000 2 2 4 
-214.022003 500.290009 4.553000 12 21 23 
-199.501007 526.809998 -7.855000 209 177 158 
-205.440002 577.049011 -7.900000 112 110 116 
-176.042999 456.516998 6.440000 9 9 9 
-142.684998 457.825012 6.795000 1 0 0 
-177.100006 501.425995 6.238000 14 18 19 
-138.056000 497.209015 11.198000 10 10 10 
-108.713997 461.584015 14.028000 33 31 29 
-64.748001 461.867004 3.403000 199 186 178 
-108.639999 497.822998 15.517000 43 39 38 
-65.066002 498.783997 3.502000 209 195 188 
-174.858002 533.307983 -6.161000 190 167 136 
-136.970001 536.817017 -4.382000 120 58 54 
-173.548004 573.685974 -6.258000 154 140 121 
-138.397003 573.112976 -4.624000 128 121 123 
-101.906998 536.507019 2.464000 190 182 180 
-64.496002 536.000977 3.572000 222 209 204 
-101.593002 573.132996 2.448000 190 184 179 
-64.742996 572.651978 3.855000 174 141 131 
-210.759003 611.349976 -7.906000 193 159 97 
-207.078995 643.820984 -7.901000 199 141 118 
-207.151001 684.588013 -7.758000 96 86 88 
-200.442993 722.244019 -7.905000 116 116 124 
-175.216003 610.072998 -6.345000 107 105 110 
-139.218002 612.544983 -4.148000 133 108 118 
-173.675995 645.692993 -5.901000 134 130 130 
-138.287003 647.093018 -4.584000 140 131 137 
-101.806000 610.495972 2.479000 211 198 192 
-65.165001 610.617981 3.696000 228 217 207 
-101.486000 647.096008 2.572000 192 190 187 
-64.915001 647.250977 3.573000 191 186 179 
-175.216995 685.231018 -6.537000 114 110 117 
-138.472000 684.838013 -4.578000 135 133 139 
-175.641998 722.119019 -6.617000 121 122 133 
-138.811996 720.880005 -4.735000 130 126 134 
-101.594002 684.854980 2.524000 229 219 211 
-64.648003 684.320007 3.648000 199 192 184 
-101.410004 721.768982 2.578000 229 211 205 
-64.803001 721.455994 3.707000 248 228 219 
-27.718000 164.949997 10.381000 140 99 66 
9.150000 164.615005 10.086000 16 17 15 
-28.152000 201.494995 10.186000 136 111 98 
9.113000 201.774002 10.920000 9 9 8 
46.011002 168.436996 9.998000 10 9 9 
84.496002 166.154007 20.865000 10 9 9 
45.493999 200.692001 9.353000 11 10 10 
97.086998 202.313995 4.790000 9 9 9 
-27.975000 238.375000 9.428000 134 90 54 
9.846000 239.399002 9.400000 10 10 10 
-27.386000 275.841003 9.055000 148 107 65 
12.288000 276.562012 8.101000 48 34 32 
46.238998 239.550995 9.791000 11 11 10 
84.714996 232.619995 20.987000 13 12 12 
46.150002 276.346985 9.876000 13 12 11 
85.125000 276.993011 3.659000 66 62 60 
120.554001 164.927994 8.069000 11 11 11 
158.248993 168.095993 7.705000 14 12 14 
120.611000 202.214996 8.751000 16 14 13 
157.774994 197.488007 8.706000 15 12 14 
190.804001 157.453995 4.852000 6 6 5 
223.919006 174.843994 1.741000 6 6 6 
195.653000 202.216995 6.645000 16 14 15 
226.250000 200.608002 4.565000 10 9 9 
118.907997 240.994995 8.206000 11 10 10 
159.942993 242.626007 8.845000 13 10 11 
120.721001 275.272003 7.604000 17 16 14 
157.781998 274.337006 8.698000 13 11 11 
195.341003 242.024002 13.136000 10 9 9 
192.108002 276.979004 9.474000 13 11 12 
-28.077000 312.980011 9.993000 123 76 47 
8.389000 312.321991 10.878000 20 15 14 
-28.158001 350.299011 9.081000 116 72 48 
9.402000 350.183990 9.197000 20 20 20 
30.924999 326.901001 9.597000 16 10 9 
84.000000 313.265015 4.491000 59 53 53 
45.653999 350.735992 9.501000 14 13 12 
65.931000 345.046997 9.480000 31 23 24 
-28.384001 387.846985 8.926000 130 85 59 
16.062000 385.691010 9.598000 24 17 17 
-28.198999 424.234009 8.140000 156 118 86 
9.184000 424.807007 8.882000 115 63 62 
45.901001 387.747986 10.285000 17 14 14 
73.458000 392.700989 3.603000 29 28 26 
45.279999 424.963013 8.655000 21 16 15 
72.620003 419.967010 3.303000 39 38 36 
129.856003 308.244995 4.358000 12 8 9 
159.598007 306.678009 3.001000 13 13 13 
188.292007 304.953003 2.226000 11 9 10 
242.328995 319.367004 -6.308000 23 25 20 
106.482002 428.927002 2.873000 26 27 24 
157.673996 442.674988 10.388000 8 9 8 
282.175995 195.598007 -6.097000 10 9 10 
297.415009 205.852005 -6.300000 13 12 10 
365.828003 203.057007 19.419001 30 36 31 
322.671997 224.227005 -7.888000 14 12 11 
267.414001 292.748993 -0.812000 17 14 14 
323.210999 285.898987 -7.808000 13 11 9 
347.225006 248.563004 0.566000 21 25 18 
368.191010 222.498001 17.662001 23 33 26 
330.406006 294.053009 -7.549000 18 16 16 
272.058990 304.639008 -1.771000 18 15 15 
290.631012 305.838989 -3.249000 19 16 16 
324.641998 363.157990 3.699000 13 14 11 
326.264008 294.851013 -7.760000 17 15 16 
324.959015 363.351990 3.075000 13 14 10 
283.601013 438.787994 4.738000 18 16 16 
287.916992 438.454010 1.759000 13 12 12 
351.401001 390.915985 20.205000 67 56 38 
-27.775999 461.928009 4.476000 195 187 176 
13.511000 461.587006 10.441000 124 127 126 
-28.288000 498.673004 4.822000 196 117 83 
13.770000 498.651001 10.922000 158 159 149 
52.352001 456.011993 12.146000 9 16 16 
83.151001 455.993988 10.424000 7 9 10 
51.063999 505.173004 5.376000 42 42 39 
82.430000 498.786011 3.638000 38 38 37 
-29.013000 536.732971 7.585000 158 109 74 
9.321000 536.219971 8.731000 161 124 97 
-28.082001 573.932007 8.478000 166 129 105 
9.349000 573.146973 7.774000 158 122 84 
46.034000 535.984985 7.048000 20 18 18 
85.480003 537.190002 2.815000 40 38 39 
46.099998 573.333984 7.648000 21 20 17 
89.265999 571.385010 2.265000 33 29 31 
118.061996 455.626007 12.211000 18 18 17 
148.884995 458.691986 17.952999 19 21 16 
137.477997 502.394012 17.674999 13 16 14 
155.664001 491.880005 6.215000 8 9 8 
176.584000 513.669983 -0.020000 27 27 27 
128.869995 530.323975 5.660000 10 11 10 
156.501007 536.260986 10.450000 8 8 8 
108.872002 567.911011 2.571000 64 57 58 
156.718002 566.481995 12.165000 11 12 9 
-28.364000 610.400024 8.076000 134 83 53 
8.672000 609.344971 7.408000 147 119 80 
-28.111000 648.031982 8.261000 189 131 109 
10.681000 646.375977 12.254000 27 25 26 
46.050999 613.317993 6.951000 19 19 18 
67.764000 604.291992 7.941000 41 32 30 
46.368000 647.346985 6.295000 16 14 15 
83.142998 647.620972 3.906000 113 110 99 
-27.749001 685.424011 9.656000 155 90 54 
12.489000 684.604004 10.616000 174 175 163 
-28.035000 721.067993 8.974000 165 118 81 
8.791000 721.864014 6.845000 162 117 77 
44.383999 685.052002 7.995000 50 37 30 
89.124001 683.776978 3.964000 116 111 104 
45.957001 722.106018 7.400000 17 16 14 
87.056999 726.625977 2.889000 41 41 39 
121.355003 609.335999 12.352000 20 21 20 
156.001999 625.958984 6.983000 12 10 11 
130.509003 642.919983 5.870000 22 21 22 
156.391006 632.635986 6.751000 17 15 16 
102.153000 736.354004 3.392000 43 42 41 
191.244995 708.223022 -6.692000 24 25 25 
